0.0407514420 3.5128429136 -0.3048000000
2.8759664173 5.9805213312 -0.3048000000
-3.0733284265 0.5025997048 0.0000000000
1.2879135786 5.7459784210 0.0000000000
2.4758521196 2.8495718308 -0.3048000000
1.2503830233 0.9283095837 0.0000000000
0.6572277215 0.3210438338 -0.3048000000
1.4956087105 3.2749240519 -0.3048000000
0.5677318355 4.3372663030 -0.3048000000
0.3798654227 3.2842864281 0.0000000000
-0.8858838547 6.1665307268 -0.3048000000
-0.6213474609 1.0990214301 0.0000000000
-0.0895933008 5.1453202388 -0.3048000000
2.6410051219 3.8341544465 -0.3048000000
-1.9637175779 2.0886157126 0.0000000000
2.8572217220 3.6001533265 0.0000000000
0.1851229517 3.4320965524 -0.3048000000
-2.6530619958 3.2720070358 0.0000000000
3.2085000000 -0.1054497583 -0.1522208109
0.4310352865 1.0290222592 -0.3048000000
-1.6562520450 3.4921980456 0.0000000000
1.7036271011 3.5767277738 0.0000000000
-1.7296235294 0.5748248109 0.0000000000
-1.7140418079 4.3943682079 -0.3048000000
0.9714700717 0.2587819060 -0.3048000000
2.2670629153 0.6641380193 0.0000000000
-2.9076325264 5.3946948703 0.0000000000
1.0117067839 4.7038052908 0.0000000000
0.9031728091 3.3004609433 -0.3048000000
1.4569844890 4.1882881581 0.0000000000
-0.8529417814 0.3586771810 -0.3048000000
-0.1307077578 6.0866253508 -0.3048000000
-1.4470598878 4.3328848671 -0.3048000000
-0.6481192075 -0.2085000000 -0.2170257283
1.5140703606 5.8595265548 -0.3048000000
-2.6066108057 3.1351908376 0.0000000000
1.3738252015 5.1306705085 0.0000000000
1.3293767995 3.6714718337 0.0000000000
0.9171821082 4.9335960690 0.0000000000
-0.4262337954 4.2236813532 0.0000000000
-1.7371199588 4.3016236066 0.0000000000
2.6621570341 0.4381747628 -0.3048000000
1.0887233999 2.4063073479 -0.3048000000
-3.1114539032 5.0092378055 0.0000000000
-0.8067525160 5.3385604558 -0.3048000000
-1.4645694450 1.4922171479 0.0000000000
0.8512805669 1.3841315037 -0.3048000000
0.4848942118 1.7881399155 0.0000000000
2.3295935578 2.4894138752 -0.3048000000
-3.2085000000 3.3532071274 -0.2342551323
-1.1655937418 5.3283006281 0.0000000000
-0.3659622628 4.3088727342 -0.3048000000
2.5310540410 0.5403872932 -0.3048000000
-1.5109075543 1.7881117940 0.0000000000
-1.3421389776 2.0424126819 -0.3048000000
1.3657327231 0.8295485415 0.0000000000
0.2975227109 2.3655606266 -0.3048000000
0.9374388612 3.2889193857 0.0000000000
2.7874788185 -0.1752642515 0.0000000000
1.0761093983 4.0279131429 0.0000000000
-3.2085000000 0.3042196004 -0.1187402252
1.9472056492 0.0415181386 -0.3048000000
0.2649311276 6.0010790510 -0.3048000000
1.5812003582 3.6053102097 0.0000000000
2.0743162782 -0.1819741300 0.0000000000
-3.2085000000 1.7317986655 -0.0565039520
-0.8284769495 4.9635369297 0.0000000000
0.8376240511 0.4292778997 0.0000000000
-1.8893219227 5.3428478536 0.0000000000
-3.0966242838 4.4565461152 0.0000000000
0.5386384982 2.1074583085 0.0000000000
-0.2247925846 2.7299461977 0.0000000000
0.5921944980 2.3572233922 0.0000000000
1.7788272819 6.0922013513 -0.3048000000
-2.6204254348 1.5530707607 0.0000000000
-2.1392692913 1.2727832600 -0.3048000000
-1.6109839146 2.5933619277 0.0000000000
-0.6124766380 -0.2085000000 -0.2798215340
2.9232010344 1.1072463492 0.0000000000
1.8409049757 0.8062381318 -0.3048000000
1.0283549490 0.6744826540 -0.3048000000
-2.0045309621 4.3028814067 -0.3048000000
2.3315423493 4.5430638065 0.0000000000
-3.2085000000 5.6903676656 -0.0682122106
-1.8485329104 2.4871011457 0.0000000000
1.4388625075 2.3865108072 0.0000000000
-2.7558972347 4.5769650855 -0.3048000000
3.1130149207 0.2976235555 0.0000000000
0.2931013467 1.8270835888 0.0000000000
-2.8753389072 1.4756069128 0.0000000000
-3.0028167330 2.5800508824 -0.3048000000
-1.4988003209 0.2372526688 -0.3048000000
2.6277184160 3.0425268735 -0.3048000000
2.6286724676 3.6103671275 -0.3048000000
-2.9139551734 4.4088679935 0.0000000000
-2.3035418443 5.1283816915 -0.3048000000
0.2003441234 1.2555325376 0.0000000000
-0.8374914189 1.7141667189 0.0000000000
-0.1276577135 1.4947442040 -0.3048000000
-1.8072341561 5.5128974248 0.0000000000
-1.3688286364 -0.0809361235 0.0000000000
1.2036085215 5.2071130620 0.0000000000
-3.2085000000 1.8055324124 -0.2280801349
0.9709958969 4.0878703069 -0.3048000000
-1.2726582190 1.8797282456 0.0000000000
1.2377896373 6.0053454891 0.0000000000
-1.0986988702 2.1694883001 -0.3048000000
0.3307026227 0.0630865983 0.0000000000
1.0919088352 4.9737819038 0.0000000000
-0.0720527802 1.9195669576 0.0000000000
-1.9504853816 4.3370582971 -0.3048000000
1.9319547552 6.0427924403 0.0000000000
-1.7623243464 5.7123828879 0.0000000000
2.0739683718 1.1427540920 -0.3048000000
-0.5318201882 4.6605391378 0.0000000000
-2.6179988530 1.5343359460 0.0000000000
-0.3506920918 3.5701874034 0.0000000000
-0.2622198282 5.1287378122 -0.3048000000
1.6677618552 4.5110624940 -0.3048000000
-0.6467910705 5.3638053583 0.0000000000
0.3835994355 4.6584373793 0.0000000000
-1.3365972349 4.5219679978 0.0000000000
-2.9712095159 3.1386868817 0.0000000000
2.2994671851 1.5704092289 -0.3048000000
2.8497881584 1.7195356992 0.0000000000
-1.7450109274 5.5382983559 0.0000000000
1.8458076547 2.4748649753 -0.3048000000
0.3400996132 3.4177671638 -0.3048000000
-2.1981862606 1.0514694685 -0.3048000000
2.4919689746 5.5288244432 0.0000000000
1.0112936377 3.3962196589 -0.3048000000
1.0519385269 -0.0562043135 0.0000000000
2.1035974080 3.3149427103 0.0000000000
0.9253006532 2.0743224013 -0.3048000000
-0.6399915396 4.4749057071 -0.3048000000
-2.2408115211 3.1646747602 -0.3048000000
-0.0998293013 3.6850940808 -0.3048000000
2.8729141155 3.3165146379 0.0000000000
0.3522883556 2.6046318443 -0.3048000000
-0.1498164916 1.0894325290 -0.3048000000
-2.4121106352 4.7865095063 -0.3048000000
-1.8984492310 2.7209575444 -0.3048000000
2.1072023291 0.0876473433 -0.3048000000
-3.2085000000 5.8508745389 -0.2293213466
-0.1275070499 3.1611433355 0.0000000000
-2.5059859185 2.6797185666 -0.3048000000
-1.2761417501 0.1156363716 0.0000000000
1.9278737702 4.9655844459 -0.3048000000
0.7903414781 4.2073709374 -0.3048000000
-0.6464726438 5.8821163272 -0.3048000000
-2.8565189146 4.9435705561 -0.3048000000
3.1349883143 -0.2085000000 -0.2851613107
-0.0398310851 1.2346985253 0.0000000000
-2.0374206899 4.6397252558 -0.3048000000
-2.5681515416 6.2085000000 -0.1012094842
1.1369106681 6.0158503220 0.0000000000
0.0245018884 2.1700910257 -0.3048000000
2.8015409293 3.8347021149 -0.3048000000
2.2967579808 3.8555299625 -0.3048000000
-3.2085000000 1.5366395587 -0.0403518066
2.7625652574 4.4589610227 0.0000000000
0.0723988902 5.2412976823 0.0000000000
-2.8734059963 5.4768092999 0.0000000000
1.9055271676 4.4242652431 0.0000000000
0.3326078458 -0.0361897077 0.0000000000
2.0938726550 1.0399910436 -0.3048000000
-2.4890831961 2.7564997460 0.0000000000
1.8478281018 0.8842933901 -0.3048000000
0.0143823612 5.9484468871 0.0000000000
-1.1427359316 4.4503266091 0.0000000000
3.1556178727 3.0323158562 -0.3048000000
-3.2075203429 1.2486700750 0.0000000000
3.0320702336 -0.2085000000 -0.2907716090
1.3945971002 3.2522749710 0.0000000000
2.4518012663 3.3587325714 0.0000000000
0.1179779648 3.8209176693 0.0000000000
2.7392842969 1.9736019215 0.0000000000
-3.1868725565 2.8769115614 0.0000000000
-0.6393471084 3.8918019689 -0.3048000000
0.3502922385 0.6921776600 -0.3048000000
1.9700558674 4.3164830717 0.0000000000
3.0991600649 1.1560969470 -0.3048000000
-3.0117470359 4.3158682649 -0.3048000000
2.1792661758 4.1089377986 -0.3048000000
2.9192421418 2.0298385236 -0.3048000000
-1.2132570191 0.0272511878 0.0000000000
-1.2613372536 4.7563771102 0.0000000000
2.7777911101 3.3020233685 -0.3048000000
-2.3343136273 2.9211538221 0.0000000000
0.8061113857 0.6277228274 0.0000000000
-1.7206403066 0.0833743536 -0.3048000000
-0.0780753613 3.0101125084 -0.3048000000
-0.6687690522 4.3136382304 0.0000000000
0.3451998353 1.3920833084 0.0000000000
1.6875226537 4.3042723977 0.0000000000
0.8235072176 3.7917241355 0.0000000000
-1.6401749435 0.0076875226 -0.3048000000
2.4091598842 2.6466818719 -0.3048000000
-1.1140788696 0.8977237705 0.0000000000
2.4616796324 6.2085000000 -0.1644226157
-2.0413085051 2.2841779455 -0.3048000000
2.9730963453 1.0147876456 -0.3048000000
-0.5859642165 2.3561178980 -0.3048000000
2.1778005816 5.5000833931 0.0000000000
3.2085000000 0.0817567807 -0.2830185389
-2.9491034850 -0.2085000000 -0.2769375858
3.0990574422 1.2838959499 -0.3048000000
0.2738075518 3.4222104666 -0.3048000000
0.5058373859 0.1272740684 -0.3048000000
0.8306834921 5.0201811411 0.0000000000
-2.3559996952 1.7837199495 -0.3048000000
-1.3902719490 4.7949744934 -0.3048000000
-0.7473769142 6.2085000000 -0.0560354376
-0.7595885018 1.3059863184 -0.3048000000
3.2085000000 1.1402180730 -0.1296084044
-0.7364002333 -0.2085000000 -0.0232852439
0.0258825968 0.9440680860 0.0000000000
-2.4843796717 0.5717454832 0.0000000000
2.9146433662 1.9192210164 0.0000000000
-0.1297927657 0.8267359009 0.0000000000
3.2085000000 -0.1618014081 -0.2899906282
-1.3553420995 1.0949014419 0.0000000000
2.0917142454 0.5979129638 0.0000000000
-0.5789081131 4.8199427041 -0.3048000000
2.8731202179 4.1427195943 -0.3048000000
-2.1456414642 4.7887100582 0.0000000000
1.6326640704 2.4530013582 0.0000000000
1.2734615829 3.7236043436 0.0000000000
-2.2311842017 3.6922955741 0.0000000000
-1.1037852719 4.0968384480 -0.3048000000
-0.1565065129 1.1943688112 0.0000000000
-3.2085000000 1.1832273557 -0.2275329308
-0.5734115160 4.9316117034 0.0000000000
-1.7878837326 0.5103489072 -0.3048000000
-1.3058046705 2.0239420080 0.0000000000
1.8324635848 0.5951263696 -0.3048000000
2.6558638702 2.7796860801 -0.3048000000
0.7862983181 5.5900800670 0.0000000000
-1.0589042409 2.3687637186 0.0000000000
0.9237574978 0.0667628874 0.0000000000
-1.6795802079 4.3113825400 0.0000000000
1.1424488727 5.3892035302 0.0000000000
2.9434904081 5.6190837251 0.0000000000
0.0208308590 3.2656917277 -0.3048000000
-1.0485390360 1.4661120341 0.0000000000
-1.5923984435 0.5883710908 -0.3048000000
-0.8126055623 2.6197021974 -0.3048000000
0.3153773298 2.4032708320 0.0000000000
-0.4187438961 -0.2085000000 -0.1877544869
-3.1144737191 6.0892825219 -0.3048000000
1.0518422568 4.3122233691 -0.3048000000
-2.8364662095 0.7404096686 -0.3048000000
3.2085000000 1.3218728841 -0.0939355062
-0.3377980188 2.5109394170 -0.3048000000
-1.5618948144 3.4747864784 0.0000000000
-3.2085000000 2.6943840279 -0.2452128472
0.1767622203 3.4952092679 0.0000000000
0.1101403722 1.1561574260 -0.3048000000
-0.0330291459 1.0251076239 0.0000000000
-3.0298575651 1.3895465585 0.0000000000
1.7893132544 2.3209957776 0.0000000000
-1.2250324377 -0.2085000000 -0.0203511849
-1.6398089963 3.9721538708 -0.3048000000
2.4991335793 1.9849829807 0.0000000000
-0.3750169223 3.8440724074 -0.3048000000
-1.3779295332 4.5160608335 0.0000000000
-2.8350001576 3.8363820886 -0.3048000000
1.3454380634 1.1471996510 0.0000000000
3.0554828213 5.8292678946 -0.3048000000
1.8716474075 3.0018645097 -0.3048000000
-0.2321459247 1.9071362571 0.0000000000
0.0222063152 0.1764482584 0.0000000000
-0.2940100398 0.5028342516 -0.3048000000
2.7493533854 4.5472786262 -0.3048000000
1.8162117609 2.2469159477 0.0000000000
-2.4887436560 5.9915540338 -0.3048000000
2.8610231736 5.5947886310 0.0000000000
-1.5906444655 -0.0407330052 0.0000000000
2.2186763997 0.4514806392 0.0000000000
1.0268428670 0.3888622113 -0.3048000000
-2.3999285096 3.4469747233 0.0000000000
1.9545785355 3.5249350551 0.0000000000
1.5080370767 0.8395010824 -0.3048000000
-1.9179818411 4.5391172060 -0.3048000000
-2.7454282219 4.6727635394 0.0000000000
2.2495350128 5.0737295175 -0.3048000000
-3.2085000000 3.0460839445 -0.2365824556
-2.7544600712 6.1783406994 0.0000000000
-1.5466447860 1.6025120410 -0.3048000000
-1.6401769261 4.5106596016 0.0000000000
2.9959761945 3.6057774161 0.0000000000
-2.1483131538 1.6285105083 0.0000000000
0.8321742492 1.0959969571 0.0000000000
-0.6675357080 0.7251996691 -0.3048000000
3.1975946415 0.9411475792 0.0000000000
2.8419762126 0.5659297056 0.0000000000
2.3791418196 2.6361212176 0.0000000000
-1.0110878232 4.4093840305 -0.3048000000
2.3468707902 2.5794742343 0.0000000000
2.8667287962 3.8853588908 -0.3048000000
2.4860278164 0.2826997750 0.0000000000
-0.9339350202 2.0992975950 -0.3048000000
0.4222227410 0.2223441855 -0.3048000000
1.3567568368 5.8667334975 0.0000000000
-2.3188666814 4.1282465742 -0.3048000000
0.9454374837 5.7130954418 0.0000000000
0.9959384732 1.5451685081 0.0000000000
1.0825219555 0.5313381121 -0.3048000000
-0.3134677905 3.0485822263 -0.3048000000
0.3252183749 1.4816817968 -0.3048000000
1.0096593166 0.3495047029 0.0000000000
-0.7208816315 4.7287193039 0.0000000000
2.1851336567 1.0889593481 -0.3048000000
-1.6108347464 1.6217374265 -0.3048000000
-1.8566637015 3.8096175156 -0.3048000000
-1.6555452770 0.3595774737 0.0000000000
-1.3567066156 4.1154748880 0.0000000000
2.6480381928 4.8323592396 0.0000000000
3.0803879109 0.9001126672 -0.3048000000
0.4004252050 1.2698485345 0.0000000000
2.7564493775 -0.2085000000 -0.2458339132
2.7872009476 5.7515551710 0.0000000000
0.8976340404 3.9417986861 0.0000000000
2.1631913874 2.4486757836 0.0000000000
3.0954243668 1.5544629973 0.0000000000
2.9425570495 0.0234516722 -0.3048000000
-2.8528870188 2.9945303639 -0.3048000000
1.4781795249 -0.1364552695 -0.3048000000
2.9213739782 6.2085000000 -0.0628856249
-1.9513007512 3.4316206838 0.0000000000
-1.0734298714 2.6613022686 -0.3048000000
-1.8336997129 3.1676481012 0.0000000000
2.6510170145 5.0311116803 -0.3048000000
-2.4642960631 0.1383304812 -0.3048000000
2.9708582670 5.9518211687 0.0000000000
-3.2085000000 6.0159393177 -0.1609891255
0.9380568210 2.8324579737 0.0000000000
-0.4039460551 2.9186044416 0.0000000000
-3.2085000000 4.1458233110 -0.2369669183
3.2085000000 2.8844288862 -0.1392748744
2.7330282978 2.8104154424 -0.3048000000
-2.9489644519 1.6257788699 0.0000000000
-0.7738629467 3.6534198409 -0.3048000000
2.7169560229 2.1058643371 0.0000000000
1.1424821542 0.9416563384 0.0000000000
1.2715688204 1.6391592687 -0.3048000000
0.2435240462 4.0231007405 0.0000000000
2.4623369492 -0.2085000000 -0.2827084595
2.6809651748 6.0929059966 0.0000000000
-2.7024050625 3.3829913372 0.0000000000
1.8069783582 0.1142798046 0.0000000000
1.5129462650 6.2085000000 -0.1047268556
1.9986906405 0.3153727735 0.0000000000
-0.6961614296 2.5359772174 0.0000000000
0.9121176631 1.3741938320 -0.3048000000
1.3063215405 2.2811708509 0.0000000000
1.8896498547 4.3446645162 0.0000000000
-0.2828437609 0.3164844818 -0.3048000000
2.8039512524 3.1426974277 -0.3048000000
-2.0037730142 -0.2085000000 -0.1995668035
0.5773661089 2.8164724497 0.0000000000
1.0179649808 2.4529603865 0.0000000000
-3.2085000000 2.9977641521 -0.0017833679
1.8745550058 5.7357139340 -0.3048000000
-2.2050086724 3.9833856089 -0.3048000000
0.8934023462 2.8079755727 -0.3048000000
-0.3210714933 5.4522159991 -0.3048000000
0.6994375188 1.3361297317 -0.3048000000
-1.2827206306 0.4334246894 -0.3048000000
2.7741414986 2.9199832485 0.0000000000
-1.9658971854 0.2566823882 -0.3048000000
0.1760713699 3.2752644741 -0.3048000000
1.5187697678 2.1961706836 -0.3048000000
-2.1743824882 3.1703497741 -0.3048000000
-1.4251718326 1.5571863694 0.0000000000
-2.9838602964 4.2232013295 0.0000000000
-2.0034504993 4.6534685917 0.0000000000
-2.4474394834 4.6223771260 -0.3048000000
1.1044258918 -0.0941710473 0.0000000000
-0.4863520713 2.7991132417 -0.3048000000
-0.1195961373 5.5216454328 0.0000000000
0.6394735068 -0.2085000000 -0.1505044406
-0.1496172310 0.8793594233 -0.3048000000
-2.9575986007 6.1106169039 0.0000000000
-3.0180162977 4.1034750185 0.0000000000
-1.0622548544 -0.0394998377 -0.3048000000
2.1935803291 5.0695044225 0.0000000000
1.3282605545 1.8332150459 0.0000000000
-1.6421111590 4.7281083871 -0.3048000000
2.3086493694 6.0662751007 -0.3048000000
-2.2728210053 4.1932185507 -0.3048000000
-0.8801188181 0.8286448906 -0.3048000000
-2.0038630061 3.5421958780 -0.3048000000
-1.7679319430 6.2085000000 -0.1988169695
-0.8558083888 1.8527544644 0.0000000000
2.2064106963 2.7292668523 -0.3048000000
-3.2085000000 3.7626574206 -0.2154776347
-2.4641680573 1.7673888368 -0.3048000000
-2.5981036710 0.6556190600 -0.3048000000
-0.8160529430 5.0270601424 -0.3048000000
-0.6487035032 2.7114596539 0.0000000000
-1.3615336000 0.6950108883 -0.3048000000
-1.6361223193 3.6969556651 -0.3048000000
0.2097264942 0.9589985324 -0.3048000000
-2.6815900716 1.0873405855 0.0000000000
0.9725435803 4.2347353073 -0.3048000000
-1.8557988003 0.4010534533 0.0000000000
0.1478215439 5.6256373579 -0.3048000000
3.1505492285 5.8837421478 -0.3048000000
-0.5794804388 4.2224390258 0.0000000000
0.0462780399 4.6330634246 -0.3048000000
-3.1321754540 6.2085000000 -0.0837524398
-0.2116979663 5.8432771001 0.0000000000
-0.6664800369 0.7564817440 -0.3048000000
-2.4602274192 5.9895208418 -0.3048000000
2.2557767011 1.2036565607 0.0000000000
-1.5679007986 5.1773564272 -0.3048000000
-0.3232370321 0.8429089380 0.0000000000
-2.8349910126 1.1689510385 0.0000000000
-0.8986855377 2.5663108669 0.0000000000
-2.9158706597 4.3197755234 -0.3048000000
-0.7864114805 5.7779748842 0.0000000000
1.0654001509 3.1153183720 -0.3048000000
0.2637003408 0.6578940788 -0.3048000000
0.7166041810 0.3078995317 -0.3048000000
2.2498873253 3.5807858772 0.0000000000
2.4221492500 5.6744189520 -0.3048000000
-1.4629558999 3.2825796819 -0.3048000000
2.7201729910 5.1321209494 -0.3048000000
-1.9985538676 0.9133546854 -0.3048000000
-1.6668680836 5.5667511674 0.0000000000
-1.6237564933 6.1492161522 0.0000000000
1.5631100331 0.3146182206 0.0000000000
-2.4349838032 3.8210392799 0.0000000000
2.3137460134 0.3362432051 0.0000000000
1.1485901592 1.9274815283 0.0000000000
0.2547077228 5.4147980386 -0.3048000000
-3.2085000000 1.1568157952 -0.0910263594
-1.9697991888 -0.1885985008 0.0000000000
2.3575566378 4.6627207960 -0.3048000000
-1.4222814295 2.1071080457 -0.3048000000
-2.5162659499 1.2411110299 -0.3048000000
-1.9151875211 1.2627174571 -0.3048000000
-0.5582742260 4.2634134826 -0.3048000000
3.1580839195 3.1242987700 0.0000000000
-0.8907352196 2.7467363788 0.0000000000
1.0585055748 4.6400052948 0.0000000000
2.5722658864 2.9339888529 -0.3048000000
-0.2838392213 4.3180287518 0.0000000000
1.4384176677 2.5804284316 -0.3048000000
-1.1768846864 3.6392422072 0.0000000000
0.7842436503 3.6907107183 0.0000000000
2.6281369396 0.0994686038 -0.3048000000
-1.2895196926 0.1783622650 0.0000000000
-1.2791865902 6.0779087424 -0.3048000000
-2.2261195864 5.3568531932 -0.3048000000
3.1424580612 -0.2077747084 0.0000000000
-1.4931757822 5.5436950575 -0.3048000000
-2.8866750672 4.0114790678 -0.3048000000
-1.2468612679 3.2774970878 -0.3048000000
-2.8924539915 5.3937444642 -0.3048000000
1.9585857182 3.6800994572 -0.3048000000
2.8555299727 2.0400999338 -0.3048000000
-2.7369749319 2.3489465938 0.0000000000
-1.1305804496 5.7870119094 0.0000000000
-3.2085000000 5.4661292004 -0.1094594604
0.9117190334 0.2844868417 0.0000000000
-0.6452462020 2.4757660179 -0.3048000000
0.7571422415 3.9414291286 -0.3048000000
2.8251289008 5.3455355165 0.0000000000
-2.8204950679 0.1693578904 0.0000000000
-2.8837426957 4.7695342631 -0.3048000000
-1.5483403967 2.3583299486 0.0000000000
-0.0599777248 0.4324009974 0.0000000000
-3.1588904254 5.9233590203 0.0000000000
3.2085000000 4.3178993666 -0.2888393098
3.0125591807 0.1259094363 0.0000000000
-2.6403435614 2.9775581603 -0.3048000000
2.9853663582 2.6297678349 -0.3048000000
-0.7649941517 0.5459707295 -0.3048000000
0.9745519480 4.7633669429 0.0000000000
-3.0388432176 0.5956180754 0.0000000000
1.9698086602 -0.2085000000 -0.0703905457
-0.2570784809 2.7870211029 -0.3048000000
1.2037571680 4.3680289339 0.0000000000
-2.1307049805 5.5915826324 0.0000000000
0.8103621717 1.0830981174 -0.3048000000
-1.5475933498 5.5411097950 -0.3048000000
-1.8983356802 4.6746286606 0.0000000000
-3.0965709855 4.3432586585 -0.3048000000
3.1696681577 4.3666209835 0.0000000000
-1.9575171430 3.9707106031 0.0000000000
-0.5577073149 1.4246134457 0.0000000000
2.5316449461 0.4230933687 -0.3048000000
-1.6736486450 4.3285340812 -0.3048000000
-0.2075312243 -0.0051692786 -0.3048000000
-0.4223510756 0.8740529917 -0.3048000000
0.1465992860 6.0080223308 -0.3048000000
-1.1404170952 5.2219762279 -0.3048000000
1.9360312000 0.2989984547 0.0000000000
-3.0566934907 3.4095013948 -0.3048000000
-0.9007856268 0.4135513859 -0.3048000000
1.5580949246 6.2085000000 -0.1690055825
0.2007759473 4.1776001317 -0.3048000000
-2.0507151568 5.0051322331 -0.3048000000
-1.1523797546 5.0056889603 0.0000000000
-2.4228017194 3.3622651150 -0.3048000000
0.4476664922 -0.1621746209 0.0000000000
-0.8110663749 0.8069993606 -0.3048000000
-1.0874044211 0.9009064998 -0.3048000000
-0.2223411677 0.2404107429 0.0000000000
-2.8139642364 4.8397687629 -0.3048000000
-0.1857894242 3.7883182075 -0.3048000000
3.0591262497 6.1475209870 -0.3048000000
1.6583274023 1.5188404342 0.0000000000
0.0855564186 0.6030461533 0.0000000000
2.2075730325 4.5477750480 0.0000000000
-0.3848557524 -0.2085000000 -0.1654943229
2.1336873878 4.2521278251 -0.3048000000
-1.3929045913 3.6718419948 0.0000000000
2.0052896721 -0.1477718202 -0.3048000000
1.1106536983 5.1043931191 -0.3048000000
-3.2085000000 5.1278427557 -0.1703391085
-0.5397172837 4.7059654590 0.0000000000
0.5301208825 1.6292141127 -0.3048000000
2.9690432263 5.2328945121 0.0000000000
2.9689425640 3.9757683510 -0.3048000000
-3.1781119798 2.3582876494 0.0000000000
-1.1288992677 2.6657593924 0.0000000000
-3.1542094109 0.7588149207 0.0000000000
1.1160838086 3.9171025828 -0.3048000000
3.1882406293 2.8436705808 0.0000000000
-0.2732097193 5.6244595304 -0.3048000000
-0.1246668824 3.8277359398 0.0000000000
0.7174546216 2.9162662164 -0.3048000000
2.6701430684 3.2390017853 -0.3048000000
-0.0739025823 1.3892723095 0.0000000000
1.5139505678 3.3192826523 0.0000000000
-2.9718207143 -0.2085000000 -0.2425096829
2.0927201287 1.9189758585 0.0000000000
-0.7390279799 3.2848361177 -0.3048000000
1.8515406698 5.9643601662 0.0000000000
-2.6448200336 5.7928596335 -0.3048000000
-2.9406090543 1.1602080396 0.0000000000
-3.1021457869 1.6229855256 0.0000000000
2.0449332680 4.9890455740 0.0000000000
-0.0966553740 0.0703808701 0.0000000000
0.4767077156 0.3743758205 -0.3048000000
-2.8332516262 6.2085000000 -0.1018349993
2.1271167840 -0.1856008889 -0.3048000000
0.4167624970 1.8638892867 0.0000000000
0.4995514340 5.3080291555 0.0000000000
2.1677009041 1.2514813283 -0.3048000000
3.2085000000 3.4451374579 -0.2886279620
0.3855481556 1.7724642257 0.0000000000
2.5976233025 5.7107791039 0.0000000000
0.3732662236 5.6545832537 0.0000000000
0.6556545725 4.0912406209 -0.3048000000
-1.3043702338 5.3962103924 0.0000000000
1.5074240441 5.8871457836 -0.3048000000
-1.2254391175 1.0741695608 -0.3048000000
2.9562364646 1.8777165628 0.0000000000
-0.7463552357 2.0720616560 0.0000000000
1.3344446145 5.8987462749 0.0000000000
0.9630325517 0.5919587867 0.0000000000
-2.8463171803 5.9577490539 -0.3048000000
2.0907772394 4.5935574671 -0.3048000000
-0.9578338692 5.5795637271 0.0000000000
-1.2040313836 2.8022307093 0.0000000000
0.6439111527 -0.0126068600 -0.3048000000
-3.2085000000 2.0685726705 -0.0175786312
-0.0916361785 5.3733269953 -0.3048000000
1.6043264021 1.5223177360 0.0000000000
-0.4722484191 0.8074948172 0.0000000000
-1.6500658364 5.0868955379 -0.3048000000
-1.8612329078 2.7309515271 -0.3048000000
2.9051553925 -0.0090929963 -0.3048000000
1.2933469926 3.1598534461 0.0000000000
2.6103774843 0.1987204694 -0.3048000000
0.3275306924 2.6122746598 0.0000000000
3.0139853128 2.8349995242 0.0000000000
-2.4711726827 2.8301611516 -0.3048000000
-2.8754511239 4.1197257655 0.0000000000
2.2014316341 1.0576220272 -0.3048000000
1.7736320868 1.7495592457 -0.3048000000
-1.5271134831 2.7649632123 -0.3048000000
-1.7849337693 2.4232162676 -0.3048000000
-2.4104119718 1.3041024786 0.0000000000
1.1396977530 3.4368913046 0.0000000000
2.5391923248 3.0670050312 0.0000000000
-1.1431836016 4.2990458874 -0.3048000000
-0.9938912070 6.2085000000 -0.2615003173
-3.2085000000 5.6219702595 -0.2241529548
-0.9332695524 4.1993304071 -0.3048000000
2.1556945012 0.7547601252 0.0000000000
-2.1542142294 3.6132638098 -0.3048000000
1.4478832301 0.2817346695 0.0000000000
-0.5569235423 2.1056829836 -0.3048000000
-3.2085000000 1.2738520315 -0.0553371124
1.9843215396 0.9937992207 0.0000000000
1.4351046731 3.2837618226 -0.3048000000
-1.6039638865 5.2456021487 0.0000000000
-0.1171290467 3.2274026462 0.0000000000
-1.6801768526 1.1535009325 -0.3048000000
-2.8321131154 4.4513239925 -0.3048000000
-0.3566324860 1.5863011530 0.0000000000
1.9225212655 0.4107932340 -0.3048000000
-2.5295916878 3.5214116063 -0.3048000000
3.1808866706 1.4525304864 0.0000000000
-2.7830023962 0.7122746189 -0.3048000000
-3.0295608217 5.7781388010 -0.3048000000
2.6426717769 4.7874341597 0.0000000000
-2.2373862558 1.2274333643 -0.3048000000
1.0437432638 -0.1271494351 0.0000000000
-0.3573521005 4.1900058627 -0.3048000000
-2.5256247120 4.8259578329 0.0000000000
-2.4332719698 -0.0809169049 0.0000000000
1.6357599315 0.7435920492 -0.3048000000
1.6941240511 0.3790839950 0.0000000000
0.7312989259 1.0904560794 0.0000000000
-0.6156453669 4.2732021259 -0.3048000000
-1.7281427301 0.4909620361 -0.3048000000
0.7743222293 5.0310116361 0.0000000000
-1.4066326913 2.4675686497 0.0000000000
-2.6478932557 1.0343441022 -0.3048000000
-2.7393817776 4.1988071423 0.0000000000
0.8063578934 4.8265044199 0.0000000000
3.0853135885 -0.2085000000 -0.1538379226
-0.4836706710 1.9750130076 0.0000000000
-2.8438275082 0.7274089980 0.0000000000
-3.0249787029 3.9427298436 -0.3048000000
2.3861539814 1.1775987120 0.0000000000
0.5285395542 1.8056514259 -0.3048000000
-2.1577088051 5.1419140642 -0.3048000000
-0.7638012768 5.8888559378 -0.3048000000
1.9454265945 0.5057869513 -0.3048000000
-0.7020851116 3.6549225357 0.0000000000
0.0829840877 -0.2085000000 -0.2689875893
1.7361765429 4.2834314927 0.0000000000
1.4408072565 3.5228117490 -0.3048000000
0.4473282704 5.2438435409 0.0000000000
0.3632702964 4.9183634534 0.0000000000
1.2836781971 3.3999115369 -0.3048000000
1.4037816548 5.1667481332 -0.3048000000
1.5226827407 1.1767726105 -0.3048000000
0.3285477679 -0.2085000000 -0.2804134338
1.5218875902 3.7677922804 -0.3048000000
1.4999301827 1.4990132992 0.0000000000
-0.4661608870 5.9436542163 0.0000000000
-1.5365500252 1.0442391720 0.0000000000
-0.1316256609 2.2778737258 -0.3048000000
1.5916847300 1.7828421985 -0.3048000000
-3.2085000000 0.1298351307 -0.1999048849
-2.8615356424 3.4726955860 0.0000000000
-1.9542157973 5.7294843089 -0.3048000000
-3.2085000000 -0.1467730189 -0.2992661037
-0.7998843395 3.5950919671 -0.3048000000
-0.0958025776 0.3335702427 0.0000000000
2.0614741654 0.3258950515 -0.3048000000
-0.5767411462 0.1366587665 -0.3048000000
3.2085000000 0.3700040838 -0.2227901371
-1.8140690867 6.1330612577 -0.3048000000
-2.2666512119 1.3740596152 0.0000000000
3.1364562263 2.8124143170 0.0000000000
2.3084385437 2.5860872145 -0.3048000000
0.9086765041 5.1454204249 -0.3048000000
-0.2629906445 1.9810647249 -0.3048000000
0.3739815580 0.1830808353 0.0000000000
1.3886043045 6.1291771899 0.0000000000
2.5611963698 4.9272961297 0.0000000000
-3.0568312345 -0.2085000000 -0.2270751251
3.1420808974 -0.1775119576 -0.3048000000
0.8119155229 1.8355560715 -0.3048000000
0.5360887888 1.2373290269 0.0000000000
2.0678610515 4.8991517008 -0.3048000000
-1.3456756132 4.2500994811 0.0000000000
-0.1477989432 5.5462700673 0.0000000000
0.9181997124 0.0400083900 -0.3048000000
0.7675220012 -0.1244168226 0.0000000000
3.1280089317 1.8524134364 -0.3048000000
-1.1956026265 3.0338875821 0.0000000000
1.5609598649 4.5399856423 -0.3048000000
3.1146119377 2.1851345513 -0.3048000000
1.8873111783 3.2511025857 0.0000000000
-1.0669778979 6.2085000000 -0.2235819880
1.6162313252 1.8028235183 -0.3048000000
1.1531280288 -0.0044017385 0.0000000000
3.0509297052 3.0255123922 0.0000000000
-1.1951315148 1.1757405050 -0.3048000000
1.6958869258 -0.2085000000 -0.0321675532
-0.5538246256 1.3757058660 0.0000000000
-0.9175358179 4.0919593839 -0.3048000000
-2.9809802918 6.0477369845 0.0000000000
1.1840859356 -0.1984163887 -0.3048000000
-0.5689303118 6.2085000000 -0.0799088761
0.8052687439 0.4080336374 -0.3048000000
2.2240014687 4.0895335091 -0.3048000000
-1.3252083932 0.0687946120 -0.3048000000
2.5347953669 5.3538511767 -0.3048000000
-2.0129271180 0.7483019346 0.0000000000
-2.5461318004 3.9889471967 0.0000000000
1.3385968710 2.0034468999 -0.3048000000
3.1290865038 1.7068316407 0.0000000000
0.9216001649 2.6746806018 -0.3048000000
2.0564648681 5.3737224751 0.0000000000
-1.3419271224 6.0034680086 -0.3048000000
-2.2697237569 0.2358616804 -0.3048000000
-1.2355100002 5.8707110821 -0.3048000000
-0.3885459295 -0.0505414312 -0.3048000000
2.9954613401 0.1848037682 -0.3048000000
3.1779925982 5.5394358845 -0.3048000000
2.5342224084 4.0836374647 -0.3048000000
-2.7285647594 2.1557123891 -0.3048000000
1.7462949226 5.1545362255 -0.3048000000
-1.1854865075 5.9623066175 0.0000000000
-0.5198020044 0.3951246663 0.0000000000
-0.9121311802 2.8791444635 0.0000000000
0.0383892107 1.2992003415 0.0000000000
1.2510926941 6.2085000000 -0.2098510010
-2.7088348120 -0.2085000000 -0.0920425210
2.0318540491 2.6187644367 0.0000000000
2.1340981349 5.2371470989 0.0000000000
2.8995462226 -0.0151689436 -0.3048000000
2.6966135155 4.7208819699 -0.3048000000
-1.8460485216 0.3552419727 -0.3048000000
-3.0013873893 2.5347353345 -0.3048000000
-2.6308842937 4.6488159003 -0.3048000000
1.6416925819 1.8537179151 -0.3048000000
-1.3390468733 2.4214292929 0.0000000000
0.2959625460 4.3812425127 0.0000000000
0.3062243583 5.9054043376 -0.3048000000
0.2314302800 6.0324043882 -0.3048000000
0.6065696670 2.5857813150 0.0000000000
-1.6894804794 3.9063115486 0.0000000000
0.7586077308 1.4172070529 -0.3048000000
-0.2383618452 2.7895367734 -0.3048000000
-2.4994235025 4.9357495910 -0.3048000000
1.5855662473 2.6681596458 -0.3048000000
3.0055377998 1.7281986517 -0.3048000000
-3.2085000000 5.0076206358 -0.1162001000
3.2085000000 1.0253470106 -0.0362230131
-1.9774209258 2.8944718589 -0.3048000000
2.6789304522 1.8808335103 0.0000000000
-3.2085000000 2.5723482305 -0.1789817298
-1.5055008248 3.3324454559 -0.3048000000
-0.9896002391 5.8057450109 0.0000000000
1.1571505716 5.9351660758 -0.3048000000
-2.0076087832 1.1302394670 0.0000000000
2.9154682327 3.9058464285 0.0000000000
-0.5295302447 2.0071394341 -0.3048000000
-0.1112377412 5.9002117056 -0.3048000000
0.9939752592 5.4237308480 0.0000000000
2.3027127257 5.5829470765 0.0000000000
-0.7446425270 3.1152060062 -0.3048000000
1.2500433313 1.9267796393 0.0000000000
1.9669369069 1.2061057189 0.0000000000
-0.0649259196 -0.0897021989 -0.3048000000
1.8359094220 5.7685010142 -0.3048000000
2.4113843045 1.2804124353 -0.3048000000
1.1340028432 0.3567447192 0.0000000000
3.0346037229 6.2085000000 -0.0561959598
-1.9877828736 4.6594312404 -0.3048000000
-0.5120864322 0.2813361357 0.0000000000
-3.2085000000 4.2138394972 -0.1204706936
-0.8257448623 4.3724968074 -0.3048000000
-3.0030269614 0.9395185906 0.0000000000
2.5863519249 4.4258612105 0.0000000000
0.8553674270 2.7024876274 -0.3048000000
2.7896443573 6.2085000000 -0.1635895953
-1.0455090413 3.5423133949 -0.3048000000
0.3400215356 0.2698217807 -0.3048000000
0.2575414591 2.4711578566 0.0000000000
-1.4835910952 1.8050373318 0.0000000000
1.7898082491 4.8898441110 0.0000000000
-0.0370503075 2.1327728397 -0.3048000000
-2.5899447961 2.0277223872 0.0000000000
-0.0170190586 0.7430048049 0.0000000000
-0.1570701713 3.3865927709 -0.3048000000
-0.9040407170 4.3754396859 0.0000000000
-2.7088078788 5.9064746785 0.0000000000
-0.9801017182 -0.2085000000 -0.2198843530
-1.0886359258 0.0668197926 -0.3048000000
-1.8231750484 3.4705543473 -0.3048000000
1.5329185336 1.3564314394 -0.3048000000
1.2080205147 4.6935197305 -0.3048000000
3.0870934641 2.7670756039 0.0000000000
2.9741578250 6.2085000000 -0.2220330938
-0.7110882588 2.1000917095 -0.3048000000
1.2927652011 0.5894566968 0.0000000000
-0.5873950688 5.2659139243 -0.3048000000
0.3760418088 4.6819145947 0.0000000000
-2.6839531749 3.3642787891 -0.3048000000
1.7241325307 5.5918322487 0.0000000000
-0.1506600989 -0.2085000000 -0.1358610074
0.6864043627 4.2009205104 -0.3048000000
-2.9680855886 3.7823397854 -0.3048000000
-1.6451510083 0.1122532579 -0.3048000000
1.1153672125 5.0301627222 -0.3048000000
3.2085000000 4.3462029001 -0.0928923971
-2.0707311983 6.1488073230 0.0000000000
1.3327988445 5.7618708435 0.0000000000
1.6677797979 3.8648164315 0.0000000000
0.9290453494 1.5511371342 0.0000000000
-3.1605797287 4.6424806701 -0.3048000000
-1.5948691049 2.0670821228 0.0000000000
1.7550397623 6.2085000000 -0.1811760036
3.2085000000 4.1888964693 -0.2080040489
-2.6797898858 2.9846461641 0.0000000000
-0.8939413451 3.0672229689 -0.3048000000
2.8590694127 3.6114608721 0.0000000000
-1.6999697864 3.9362700292 0.0000000000
-0.6258618019 5.2983674923 0.0000000000
-1.6072014014 1.0626495778 -0.3048000000
-2.3445659080 1.9021920948 -0.3048000000
0.3084527520 4.1909608522 0.0000000000
1.3582500208 5.3078021526 -0.3048000000
-3.1131578308 2.0314122293 0.0000000000
1.9891242229 4.1850842310 0.0000000000
2.9527577882 4.5276858802 -0.3048000000
3.2085000000 1.5541905663 -0.1201547494
2.5731002194 2.2279097846 -0.3048000000
-1.7973512788 6.0240741161 -0.3048000000
-2.7657709462 0.8935644398 0.0000000000
0.3055288480 2.8903141548 0.0000000000
-1.5158820930 1.2708914254 -0.3048000000
-0.0416891239 4.5016055858 -0.3048000000
-1.3060979231 2.2611757480 -0.3048000000
1.4165317387 1.8276507883 -0.3048000000
-1.1477797253 5.0689657190 -0.3048000000
2.4296769103 2.6900840552 -0.3048000000
2.1279350836 3.0822286231 0.0000000000
-2.5788114509 0.0801887905 0.0000000000
-0.3555339964 5.9818938529 -0.3048000000
2.3923204505 1.0992827423 0.0000000000
0.8314045311 4.7631423651 -0.3048000000
-0.0111206352 1.2262678023 0.0000000000
1.8019384797 1.3322413243 0.0000000000
3.2001374216 5.0063802124 -0.3048000000
-0.4122794130 5.4637267820 -0.3048000000
-0.7610200335 4.5216352408 0.0000000000
0.2598902876 5.9451178438 -0.3048000000
2.2359240819 3.5866290037 -0.3048000000
3.1413216814 5.5293958134 -0.3048000000
2.7423060785 4.3555843943 0.0000000000
-0.0803949310 4.0457842255 0.0000000000
0.7830754599 4.0475755525 0.0000000000
-3.2085000000 1.7763945662 -0.2498635778
1.6966938804 3.5710268196 0.0000000000
1.2361425541 5.7424123282 -0.3048000000
1.2344955713 3.5621992850 0.0000000000
1.8272556070 3.6517291777 -0.3048000000
-2.8477351439 2.7551221792 -0.3048000000
2.9410619092 1.8142001023 0.0000000000
1.0801542227 1.5932421778 0.0000000000
-2.2798345214 1.3356448120 -0.3048000000
-1.8090855976 6.0048472845 -0.3048000000
0.3088839542 1.6308236807 -0.3048000000
-0.0549177241 5.0671929651 0.0000000000
-0.3462350585 5.2563212321 -0.3048000000
-2.7690753511 0.8755194355 -0.3048000000
0.3331765835 4.3145533395 0.0000000000
-1.0022070867 4.6375972910 0.0000000000
-3.2085000000 2.0729207211 -0.0360122270
2.8023054532 1.7471720756 0.0000000000
0.0886874852 0.5017225835 0.0000000000
0.9573563673 6.1830201962 -0.3048000000
-2.7823477149 4.5825688486 0.0000000000
1.7444489012 5.1525419578 -0.3048000000
1.9254354764 1.6037123317 0.0000000000
1.6487281618 5.5770845304 0.0000000000
2.2117454987 4.8417668702 0.0000000000
1.6735724786 5.7439224615 -0.3048000000
2.6300476997 1.9617398934 -0.3048000000
-2.1028091174 2.0970566030 -0.3048000000
-0.4012226342 3.2984648967 0.0000000000
2.6496165686 3.3816685431 0.0000000000
1.1153411696 1.2609559606 0.0000000000
-2.5063655506 3.6338452582 0.0000000000
-0.4011951015 1.4003025646 0.0000000000
-3.2085000000 -0.1826251780 -0.0150925454
-0.9439311806 5.1470213864 0.0000000000
-0.5657873930 3.6886684729 0.0000000000
-1.0881891083 3.8657478778 0.0000000000
0.4027283519 2.9716949338 -0.3048000000
-2.9146144972 2.5414782351 -0.3048000000
1.3656357251 4.3324857427 -0.3048000000
-2.7991380712 6.0031749889 -0.3048000000
0.9122464946 1.2490651187 -0.3048000000
2.3720109850 4.4879353184 0.0000000000
2.6016103271 4.0256187453 0.0000000000
-0.6105717629 2.0076722321 0.0000000000
1.0683065104 4.5111907408 0.0000000000
-1.3854167217 3.5488798861 -0.3048000000
-0.0307017343 4.7785399541 0.0000000000
-2.3585539725 0.3938567334 0.0000000000
-2.7683414386 5.3109093834 -0.3048000000
-2.3077941158 0.0005439391 -0.3048000000
1.5885950145 0.3433898253 -0.3048000000
-0.8988474961 0.7947322207 0.0000000000
1.8188511266 0.2997155512 -0.3048000000
-1.7188441253 0.5307357664 0.0000000000
3.0108029304 0.4844716755 0.0000000000
-3.0082971157 5.2044487102 -0.3048000000
-0.6393323652 0.5354540104 0.0000000000
2.9325756907 0.0754412663 0.0000000000
-0.7815465388 1.7322155622 -0.3048000000
0.6809370879 2.9371775675 -0.3048000000
1.2813213111 3.2957076815 -0.3048000000
1.7669181605 1.3076199182 0.0000000000
-0.7185140795 5.1741468029 -0.3048000000
-0.5959813694 2.1428541393 0.0000000000
-0.6735159501 2.5083059724 0.0000000000
0.8773246076 5.3835589887 0.0000000000
-3.0150199048 5.4141021588 0.0000000000
2.7739629299 5.1363086279 0.0000000000
-0.4932955931 3.1932584182 -0.3048000000
-0.2451229401 3.7635949574 0.0000000000
-1.2736949668 1.3979416104 -0.3048000000
2.0320908252 2.2820649823 0.0000000000
-1.6393305392 1.4589812713 -0.3048000000
1.6764749054 1.1873185421 0.0000000000
-3.0490288411 0.3139174812 0.0000000000
-2.0081292900 3.4998970070 0.0000000000
2.1296199401 5.4815002896 -0.3048000000
0.0606799461 2.2884297550 -0.3048000000
0.1962230643 2.6666425151 0.0000000000
2.8304271238 5.4318360089 0.0000000000
3.1965620007 0.6416789628 -0.3048000000
-1.7264687313 3.2853637835 0.0000000000
1.2095424947 1.5793453638 -0.3048000000
1.9608723046 4.7483428982 0.0000000000
2.4778078301 4.3227150276 -0.3048000000
-0.0690117592 4.8239516695 0.0000000000
0.8494699787 6.1951342841 -0.3048000000
1.0306884613 5.6619734862 -0.3048000000
-1.4863732583 0.1683953141 -0.3048000000
-0.1903494811 3.2599926671 0.0000000000
0.6802210969 2.4317616139 0.0000000000
3.2085000000 4.1054753508 -0.2337736973
-0.2478412482 2.8629996798 0.0000000000
-0.5503895429 3.5637541227 -0.3048000000
1.3284672451 5.8645948487 0.0000000000
-0.3381373552 5.7619366979 0.0000000000
-1.3655899024 2.3606853249 -0.3048000000
1.0300687209 5.7294507416 0.0000000000
3.1773933372 5.2059460497 0.0000000000
-0.9339130228 2.6240742776 -0.3048000000
-2.7172790603 6.2085000000 -0.2462025405
-2.8727188188 0.8956788205 -0.3048000000
3.2085000000 4.6754208688 -0.2497372895
-1.0284362408 4.7834918549 -0.3048000000
-2.6666779564 4.5766317546 0.0000000000
-1.9820756364 3.7155597894 -0.3048000000
0.4999380499 0.6108055406 0.0000000000
2.6439592877 1.1644969913 0.0000000000
2.2751939431 -0.1567957231 0.0000000000
-3.2085000000 1.2385519732 -0.0126946944
0.0335288367 3.3452192636 0.0000000000
-1.4693247348 5.0730446721 0.0000000000
-2.3310196895 4.2999579141 -0.3048000000
-0.1910325258 5.2115392606 0.0000000000
-2.1272217185 1.8096829177 -0.3048000000
3.0378099612 3.3132360569 -0.3048000000
0.8616072972 5.3001838444 0.0000000000
-1.8912362748 4.0338612825 0.0000000000
-0.5555118639 2.9336808682 -0.3048000000
-2.8956962427 3.0509145153 -0.3048000000
0.9535824366 5.5496054515 0.0000000000
-1.8775888606 4.2125384967 0.0000000000
-2.7858389413 3.1100768303 -0.3048000000
-1.7314924206 3.9265916250 0.0000000000
-0.2317405785 5.0779160134 -0.3048000000
-0.6527301127 4.4855279121 0.0000000000
-1.9036846774 5.8601140176 -0.3048000000
0.8105537902 3.3597156527 0.0000000000
-1.0607771275 0.1117327864 0.0000000000
3.2085000000 3.1812093113 -0.2067950178
2.3192847960 0.1633010455 -0.3048000000
-3.1214185417 2.5790880078 0.0000000000
0.4048849472 3.5502910390 -0.3048000000
-1.1551495847 1.7101084872 0.0000000000
-0.8171902164 3.8387492671 0.0000000000
-1.2331622172 0.7629042418 -0.3048000000
-2.0121003428 5.5303540455 -0.3048000000
-2.6632090804 0.5582275904 0.0000000000
-1.7210272712 0.3741501373 -0.3048000000
-2.8326795737 2.5625171308 0.0000000000
2.2585250648 4.6886933050 -0.3048000000
-2.3839023932 1.5875840045 -0.3048000000
3.2085000000 3.8340451287 -0.1426658666
-1.7825755646 1.3699195777 -0.3048000000
0.4260140641 1.1875637947 -0.3048000000
1.3424723727 3.6191590124 0.0000000000
-1.6174866267 1.2200483845 -0.3048000000
-3.1116444407 4.9960287670 -0.3048000000
-3.2085000000 4.5770447829 -0.1372182045
2.1430366448 1.8611063719 0.0000000000
0.6753493965 3.3385212593 -0.3048000000
2.7218786847 5.1500654023 0.0000000000
1.8732279268 2.3245679011 -0.3048000000
-1.7852161157 3.0889363601 -0.3048000000
3.0851942592 5.5492860910 0.0000000000
-2.8981563800 5.0660027969 -0.3048000000
-2.9630780585 1.0315629497 0.0000000000
1.7613277783 2.2023892408 -0.3048000000
-1.2209905552 2.2342177241 0.0000000000
2.3299111029 3.3526676570 0.0000000000
-3.2085000000 5.8107245757 -0.0807449273
-0.0689691092 2.3493844863 0.0000000000
0.4651927025 1.8433255339 -0.3048000000
-2.2402325790 -0.2066673496 -0.3048000000
-0.4613455480 3.3103740586 -0.3048000000
1.3507360796 5.7978895673 -0.3048000000
-1.6892998749 5.2416302276 -0.3048000000
1.9051252700 5.0987770384 -0.3048000000
-1.4115295193 2.7749019702 -0.3048000000
-1.1766403119 0.9719826060 -0.3048000000
-0.3201026870 6.2085000000 -0.0845145423
1.6690750013 5.2423494143 0.0000000000
3.2085000000 0.4483920105 -0.0977832799
2.5410836863 1.9457702423 0.0000000000
0.6005399021 5.4417529956 0.0000000000
1.5432256187 3.7878516010 0.0000000000
0.8610018987 2.3051610458 -0.3048000000
1.6725828136 2.0833431053 0.0000000000
-2.4161251434 5.9732539718 0.0000000000
1.6909945629 1.1231849215 -0.3048000000
-2.2025997480 2.1300522402 -0.3048000000
1.9662524538 0.4361373744 0.0000000000
-3.2085000000 3.9220227360 -0.2495967986
0.5464942035 4.5124738633 -0.3048000000
-1.3873642153 2.7601673630 -0.3048000000
2.3540849940 2.5666198087 0.0000000000
0.7215491327 5.5898658607 0.0000000000
2.9511660048 0.9170260611 -0.3048000000
-3.2085000000 1.6718714377 -0.2109117468
-1.3604956851 0.1563292387 0.0000000000
0.0681316628 1.0960931892 0.0000000000
0.1903351498 1.2956615130 -0.3048000000
3.0771922482 2.8754977344 -0.3048000000
-0.3008569772 5.0851230711 -0.3048000000
-3.1414759527 5.7792475241 -0.3048000000
-2.8102305795 2.0492498158 -0.3048000000
-2.7635167001 2.3921603096 -0.3048000000
-0.4286147708 2.6364076758 0.0000000000
-0.6439342529 4.3982762926 -0.3048000000
-1.2487742106 3.8623159136 -0.3048000000
1.2091895487 5.6612501223 -0.3048000000
3.0114969173 4.6196010145 -0.3048000000
1.3851769216 1.2644379462 -0.3048000000
-0.3746544947 5.0979836970 -0.3048000000
-1.3354230847 4.5578374552 0.0000000000
-1.1125066905 0.3763041632 0.0000000000
-1.6051446938 3.8845569435 0.0000000000
-0.7880474528 0.9596372423 0.0000000000
2.5840004966 5.1764939150 0.0000000000
1.3214450918 1.8375121564 -0.3048000000
-2.4664811315 5.1594787232 0.0000000000
-0.7747050738 2.8533727559 -0.3048000000
-2.4184786441 2.3895057724 0.0000000000
-1.2939968685 4.7974823593 0.0000000000
-1.1532375016 3.3145472487 -0.3048000000
-2.1280749385 1.9356246771 0.0000000000
-2.3125089259 4.0312541479 -0.3048000000
-1.7630073407 5.7848796152 -0.3048000000
-0.7154452178 -0.1559002704 -0.3048000000
0.7007811697 0.4420439944 -0.3048000000
-0.6060137274 4.1311533015 -0.3048000000
1.0555913893 5.3916826909 0.0000000000
-1.2142958346 2.9126168806 0.0000000000
2.3960915364 1.1171775617 -0.3048000000
-0.7764515236 2.8865169157 -0.3048000000
-1.4453870996 2.7453232878 0.0000000000
-1.2392502134 1.7492086983 0.0000000000
1.8659921253 2.2024609598 -0.3048000000
-2.7942443567 1.5044220629 0.0000000000
3.2085000000 4.6491125205 -0.1440072060
-1.0381902199 6.0829887782 -0.3048000000
2.5439553654 5.8151643626 0.0000000000
-2.1700144446 2.9094745323 -0.3048000000
3.2085000000 3.8350017606 -0.0170869493
-0.6618132254 3.8403208350 0.0000000000
1.6699372528 5.5880577542 -0.3048000000
3.2085000000 2.3383942407 -0.2320760440
-1.1697429984 4.5020084638 0.0000000000
-1.3441865830 3.7001768030 -0.3048000000
0.4730475881 4.9177835724 -0.3048000000
0.1283028554 1.3798388271 -0.3048000000
-1.5310250143 4.4742385605 -0.3048000000
-0.8321596059 2.3117362497 -0.3048000000
0.0702935734 5.0912249163 0.0000000000
1.8676565989 0.7832234347 -0.3048000000
-1.6080665863 -0.2085000000 -0.0605782042
2.6360529248 1.7326501128 -0.3048000000
1.8117888644 2.9751539845 -0.3048000000
-0.7163603281 1.7096496723 0.0000000000
2.9218378915 2.0387647330 0.0000000000
-1.2384811765 4.7209350242 0.0000000000
-0.3772244082 6.0545246746 0.0000000000
2.1945979409 3.2225491292 0.0000000000
-0.0146074148 0.7792692559 0.0000000000
-2.2961994059 4.7279081627 0.0000000000
-2.1018903567 1.5904161197 -0.3048000000
2.0907938882 1.9752637174 -0.3048000000
-1.1523964329 4.2033152881 0.0000000000
2.4858817708 1.4502003065 0.0000000000
1.7435972384 2.6155535421 -0.3048000000
-0.7981069815 5.8416520143 -0.3048000000
-2.4057552701 -0.1056762946 -0.3048000000
3.2085000000 3.1910768635 -0.1746160782
1.2184034536 3.2035629703 0.0000000000
-0.5937573182 2.1528169190 -0.3048000000
-0.8832840428 0.2938708059 -0.3048000000
-0.4252311421 3.9919732798 0.0000000000
1.1051334951 3.0753446828 -0.3048000000
-2.2969935687 -0.2085000000 -0.1773682712
1.1635025838 2.6505818498 0.0000000000
0.9983280737 1.9406434064 -0.3048000000
2.8849973367 0.6849511900 0.0000000000
0.7065498178 5.7152846842 -0.3048000000
-1.7508575985 0.4614974496 -0.3048000000
1.9650763997 0.1088760193 0.0000000000
-0.0428260241 3.8181368586 -0.3048000000
2.3082153019 2.2945882982 0.0000000000
3.1902508675 3.6647164441 -0.3048000000
1.6214012372 2.8883709605 -0.3048000000
-0.9486003166 1.6648088823 -0.3048000000
1.9359394911 4.4980777968 0.0000000000
1.3806940775 6.2085000000 -0.1080516822
1.6415818965 -0.2085000000 -0.0361931380
0.7189771520 3.3400967670 0.0000000000
0.4366808794 6.2085000000 -0.0648777258
0.3218145791 5.1291148637 0.0000000000
3.0058594925 5.5977372393 0.0000000000
-1.9300061975 -0.2085000000 -0.2150102073
-2.8435536627 5.4420938577 -0.3048000000
-2.0698252470 5.3125906070 0.0000000000
-0.6785276146 4.0725833236 -0.3048000000
2.7074242418 2.4892978760 -0.3048000000
-2.7724965181 0.0636662583 0.0000000000
-3.2085000000 0.5034747517 -0.2305187723
-0.7523502651 2.5843864812 0.0000000000
-1.1194100520 0.6641738545 0.0000000000
0.7654040364 4.0868771546 -0.3048000000
-3.1113080530 3.1864397890 -0.3048000000
2.0751864078 5.7540796595 -0.3048000000
-2.1254282772 2.4426291611 0.0000000000
1.0748556204 3.2096193470 0.0000000000
1.0294360956 1.9177350618 0.0000000000
-3.0684095439 5.9479104408 0.0000000000
0.5591169773 1.0876380044 -0.3048000000
1.1718345427 5.3697737047 0.0000000000
-2.8063125767 3.0624307997 0.0000000000
-0.4302593172 2.0112654394 -0.3048000000
2.9989215288 5.2204248428 0.0000000000
3.0292792292 4.4455813076 0.0000000000
1.6979540340 5.2713353232 -0.3048000000
-1.0801436262 1.8361913575 -0.3048000000
-2.8411308102 -0.2085000000 -0.2775408268
-0.2903166551 5.0942266198 -0.3048000000
0.3015725052 3.2411922640 0.0000000000
2.6722971275 5.7266972538 -0.3048000000
-2.3503621356 5.4122468635 0.0000000000
-0.3694675350 3.0104049264 -0.3048000000
-2.7227245415 -0.2085000000 -0.1061893192
-2.8191276345 0.1829582316 -0.3048000000
1.8478405930 5.6179598250 0.0000000000
-0.9464710713 2.0144481026 -0.3048000000
-0.5817775610 4.8614848855 -0.3048000000
-0.6704879154 3.3226154343 0.0000000000
3.0533352694 2.6123597870 0.0000000000
0.7211751930 1.8609958292 -0.3048000000
-2.8502491333 0.2284874629 0.0000000000
1.6527751560 3.3774216436 0.0000000000
0.7313869096 2.1706621035 -0.3048000000
-0.5500557760 2.2881697745 0.0000000000
-0.3347955712 5.5238972835 0.0000000000
1.7697221424 0.7453259187 0.0000000000
-2.7124095254 4.4219877815 0.0000000000
-0.0336640546 4.2824435026 0.0000000000
-2.4777291249 4.3355181514 0.0000000000
1.3996508266 5.8301859999 -0.3048000000
1.2066794996 4.0726038902 0.0000000000
-1.0054041617 3.0676070416 0.0000000000
-1.6999718657 3.0503505833 -0.3048000000
-2.6298332595 2.3319919309 0.0000000000
2.7744599616 1.9768550433 0.0000000000
0.1693650057 3.9850990130 0.0000000000
-1.2857527747 3.8747571589 0.0000000000
-2.3313922711 0.3866246315 -0.3048000000
-0.8483722844 0.3611592969 0.0000000000
-3.2085000000 5.3461861516 -0.1167543167
-1.9459472135 2.5723990844 -0.3048000000
-3.2085000000 5.8489719836 -0.2110794277
-1.3980355814 2.4226985328 -0.3048000000
0.5371606462 3.9204026554 -0.3048000000
